ply
format ascii 1.0
comment COMP5421
obj_info vtkPolyData points and polygons: vtk4.0
element vertex 238
property float x
property float y
property float z
element face 0
property list uchar int vertex_indices
end_header
0.400467	0.00506378	3.64606
-0.975656	0.225251	3.0884
1.23768	-0.52443	3.70388
2.18607	-0.218246	3.28067
-1.62338	0.173224	3.64902
1.81747	-0.0577538	3.42506
-2.01409	0.395912	4.76304
1.06034	0.60381	3.25465
1.67111	-0.845869	3.56173
-0.789808	0.221829	2.65897
-0.985348	-0.0292636	2.97369
0.715883	-0.109099	3.60755
2.21673	1.07594	3.06621
1.18124	0.629141	3.20528
0.349268	0.523495	3.52963
-0.782195	0.266228	2.74654
1.57084	-0.264645	3.54269
1.34268	0.520499	3.14044
0.711055	-0.797629	3.58562
-1.51558	-0.125674	4.26649
2.04621	-0.399049	3.95592
1.33227	0.322784	3.32908
1.93654	0.114602	3.35089
-1.84592	0.222763	3.96238
1.91038	0.222601	3.35956
1.25486	0.522178	3.18362
0.481826	0.277908	3.59535
2.23375	-0.250866	3.26464
0.118657	0.526165	3.16439
-1.8475	0.166078	5.3527
-1.63963	0.704123	4.63725
1.5296	-0.836374	3.61427
0.571973	0.401765	3.59981
-1.08548	0.57404	3.96739
-0.830351	-0.512543	2.64068
-0.495944	-0.852307	3.65321
1.4496	-0.793826	3.64422
0.343029	0.214302	3.55694
-1.61566	0.526351	3.6374
0.0650824	1.00063	2.66619
0.286887	-0.168832	3.87638
2.04294	0.821713	4.11368
0.684815	0.851072	2.10717
-2.00074	0.144078	4.03162
1.69415	1.09548	3.28415
-1.81026	0.420171	3.9348
1.59524	-0.135868	3.51485
0.68713	0.543136	3.406
1.83579	0.500244	3.35726
0.186179	0.267681	5.22824
1.96948	0.577588	3.28866
1.81974	0.039496	3.42194
-0.469716	1.18825	4.75568
1.88025	-0.09644	3.39225
1.85022	0.183093	3.37555
1.25049	1.03574	3.08508
0.13103	-0.873124	3.82992
-0.241543	0.597418	4.29506
1.88144	0.433849	3.34832
0.170902	-0.873298	3.79874
2.0375	0.393533	3.34246
1.15775	-1.19065	5.79186
0.38051	0.18659	3.56766
0.66806	0.605628	2.53979
1.83492	-0.440906	2.70604
0.0574489	0.056697	1.80373
1.96172	-0.193704	2.46728
1.52486	-0.6958	3.60668
1.08064	0.569009	3.2465
0.898598	-0.287561	3.65346
0.361014	-0.887687	3.73932
-0.688467	0.366936	2.49071
1.16436	-0.425378	2.24149
-0.199781	0.00303683	2.79345
-1.53397	-0.386688	5.01536
0.702767	0.203724	2.97461
0.140183	-0.147432	3.80671
-0.359808	1.05236	2.78407
1.77957	-0.290631	3.11821
1.53948	-0.56814	3.26615
1.80691	-0.566403	2.96549
-0.498702	-0.459234	2.13944
2.16022	0.21276	3.25358
2.14841	0.515957	3.21683
1.57626	-0.787075	3.59414
1.89473	0.1461	3.3619
0.435616	-0.0426294	3.57351
-1.64713	0.18532	4.40448
1.6447	0.604588	3.42691
0.387496	-0.324808	2.19773
0.110315	1.01353	2.68611
-0.944845	0.65958	3.76279
0.258756	0.723577	3.48637
-2.48494	0.230063	5.31832
0.921191	0.616325	2.65545
1.95303	0.502614	3.34539
1.62762	-0.131277	3.50655
1.76013	-0.133911	3.45318
-0.301599	0.195475	2.57675
-0.295263	0.594849	3.76798
0.633784	0.605014	2.5308
-1.3166	0.397786	4.55649
0.546849	0.962923	2.49979
1.89187	0.324691	3.35069
0.83484	0.846278	4.63735
0.523242	0.6244	3.45731
2.03791	-0.242479	2.88798
2.15623	-0.424064	3.30833
1.89538	0.800799	3.30918
2.16011	0.343886	3.23181
-0.473206	0.28341	3.28576
1.7593	-0.0292942	3.43606
1.45703	1.00563	3.0384
-1.13178	0.463561	4.48536
1.33253	-0.521277	3.66881
-0.954358	0.622799	3.62218
-1.33394	-1.22378	5.05953
-0.692116	0.635408	3.02474
-0.00838359	-0.519971	2.30776
2.09203	0.432398	3.24954
0.694151	0.278134	3.58256
-0.17394	-0.674338	2.60757
1.14886	0.600862	3.21714
1.90819	-0.0622716	3.39112
0.98841	0.534391	3.28732
1.66879	0.220493	3.45407
1.37454	0.330877	3.31286
2.09203	0.432398	3.24954
0.286428	1.01364	4.36121
-0.999367	-0.866966	4.5879
-0.725054	-0.0653311	3.91095
-0.560406	-1.11046	4.82616
1.74859	-0.266531	3.47308
-1.41294	0.251131	3.65584
0.260087	0.21218	2.33739
-1.32339	0.0735558	3.51742
1.02792	-0.100333	3.58924
1.20439	0.321187	3.48015
0.893683	0.849551	2.24891
1.37933	-0.2679	3.56468
-0.391741	0.49803	2.53471
-1.66154	0.830837	4.31838
-1.10766	0.406792	4.48842
1.74496	-0.249704	3.46874
0.298426	-0.58566	2.70663
1.40539	0.850257	3.07349
-1.33559	0.800505	4.92421
0.627466	-0.616548	2.69171
1.95362	0.218447	3.33697
-0.175087	-1.39409	4.98789
-0.387158	0.18094	4.76037
2.10204	0.358143	3.2542
-1.15354	-1.02306	4.34696
-0.977649	-0.441446	4.477
-0.0186023	-0.0755828	1.93848
-0.363519	-0.0406755	4.09671
1.49657	-0.403345	3.59007
-1.72977	-0.118573	4.76504
0.250613	-0.451688	3.96225
-1.8315	-1.08777	5.65521
-0.908376	0.0523959	3.21673
0.1453	-0.727277	3.77798
-0.623019	0.120354	2.92463
-0.481208	-0.663494	3.92443
-1.47881	0.514658	4.59595
2.13619	-0.276125	4.42694
0.205493	-0.241368	3.57889
0.169658	-0.409355	2.13354
-0.416191	-0.891831	4.00703
0.496105	0.534502	4.3018
-2.23313	0.840441	4.61257
1.48609	0.0681512	3.45409
0.47547	0.399349	2.46356
0.460652	0.671523	2.0223
-0.536839	-0.221323	2.32094
0.503708	0.0753401	3.95929
-1.71566	0.337865	3.67114
1.6286	-0.579786	3.44267
1.71567	-0.161533	2.87204
0.848347	0.248737	2.5717
-0.343837	-0.102344	2.61834
1.634	-0.126123	3.5002
-1.1934	1.08115	4.75486
1.72374	-0.104624	3.46513
1.16987	-0.847638	3.76107
-1.50962	0.305659	4.61892
0.153895	-0.0887485	1.92379
-1.00191	0.238952	4.20696
0.0722789	0.0458577	2.73035
0.121143	-0.263013	3.28511
-0.174687	-0.126898	4.05913
0.242809	0.585476	3.56998
0.882362	0.603035	3.32498
2.22567	0.921121	3.15465
-0.792233	-1.23675	4.47549
1.74214	0.512333	3.39871
1.90874	1.07471	2.58864
2.03041	-0.445862	3.13578
0.0654662	0.166737	3.83394
1.29303	0.53131	3.16719
2.09481	-0.510872	3.34499
-0.638692	-0.69575	3.90877
-0.402372	-0.836251	2.83964
2.22007	-0.5445	3.29243
-0.210709	-0.352392	3.0295
2.16385	0.361152	3.23356
1.70576	-0.409587	3.50745
1.98256	0.0462421	3.34128
1.81053	-0.26953	3.44878
0.351371	-0.453272	3.78175
0.237493	-0.309737	2.60304
-1.54808	-1.33623	4.83933
-0.158565	-0.363908	4.05041
-1.2752	-0.243791	3.20403
-0.434829	0.35547	9.39255
0.316976	0.176174	3.30274
-0.656029	-0.573606	3.22283
0.739433	0.0733488	2.96399
-0.585852	-0.305533	7.38337
0.727307	-0.522668	2.26793
1.18124	0.629141	3.20528
-1.0444	-1.21306	5.76208
1.58832	-0.590866	2.96187
-0.853799	0.266044	2.772
-1.38785	0.634353	3.58689
-1.0924	0.415588	4.29623
0.126555	-0.979638	5.27379
1.6467	-0.259611	3.50768
-0.0528754	-0.550294	2.39367
-0.0390106	-0.357028	2.33185
0.80782	-0.0510157	2.47853
-1.24679	0.252159	4.55898
0.11105	-0.479472	3.21639
-1.25877	0.299624	4.55874
-1.49483	-0.643232	5.35537
0.0211519	-0.382529	3.84784
0.351088	0.135522	3.24657
-0.353618	-0.165138	4.78163
