ply
format ascii 1.0
comment COMP5421
obj_info vtkPolyData points and polygons: vtk4.0
element vertex 161
property float x
property float y
property float z
element face 0
property list uchar int vertex_indices
end_header
0.948205	0.0222129	2.08858
0.860804	-0.607611	2.24831
0.822361	-0.0541232	2.24551
1.01461	-0.333115	2.04191
1.76371	-0.290129	1.27158
0.712685	0.21859	2.35022
0.945299	0.124501	2.08301
1.12036	-0.0892245	2.30258
1.03025	-0.322042	2.02255
0.254311	1.31025	3.46986
0.848536	-0.0451308	2.29766
1.08774	-0.303021	1.95251
0.859973	-0.574207	2.24632
1.46678	-0.1237	1.75585
1.27656	0.265547	1.68716
0.92339	-0.370495	2.15399
0.717826	0.646151	2.84346
0.870379	0.273301	2.15917
1.57656	-0.129404	1.54945
1.32521	0.129827	1.97865
0.79564	0.203662	2.25298
1.16025	0.251094	1.81974
1.23609	-0.267099	1.86605
1.73994	-0.13264	1.28804
0.860702	-0.641178	2.25151
0.946883	0.175561	2.07663
0.830405	-0.254544	2.25267
1.01946	0.11777	1.99587
-1.73822	1.5322	6.46302
1.08354	0.145142	2.47767
0.882184	-0.447193	2.21008
1.61541	-0.22944	1.45083
1.15087	0.237724	1.83218
-1.36917	0.784271	5.39876
1.66994	-0.00672552	1.31106
0.581408	0.133792	2.55822
1.31971	-0.177261	1.72977
1.67693	0.0673531	1.37208
-9.57668	0.572044	16.5059
0.964163	0.0183885	2.0702
1.69292	-0.119292	1.41423
-0.59857	-0.643902	4.3268
1.62111	0.0131624	1.39678
0.63781	0.283251	2.6865
1.68298	-0.211686	1.46694
-8.84966	-0.231356	15.3988
-0.0996239	-0.619954	3.5314
-0.277586	-0.933461	3.92449
1.49724	-0.137528	1.69856
0.797902	0.165264	2.25344
1.37989	0.172732	1.92272
0.784083	0.174221	2.26917
1.0511	-0.324931	1.99793
0.881721	-0.656193	2.22838
0.978431	0.282349	2.02969
0.881312	-0.591119	2.22296
1.21069	0.0719431	2.19231
1.53044	0.0315899	1.47174
1.28134	0.224225	1.92899
-3.57692	-1.87186	9.66284
0.555444	-0.719613	2.79194
0.706963	0.18614	2.36088
0.706977	0.215149	2.358
1.07051	-0.260072	2.09256
-1.32414	0.176688	5.56908
1.74309	-0.105369	1.28222
1.60982	0.0385178	1.50416
-4.31168	-2.15493	11.1501
1.67663	-0.0223697	1.44007
1.5336	-0.322724	1.72791
-0.290439	-0.48159	3.90037
1.01355	0.0195046	2.01196
-2.3195	-0.38555	7.7372
1.30807	-0.3623	1.72337
-0.000812855	-0.44825	3.51348
-3.18467	1.22402	7.87474
-0.430536	-0.801832	4.20886
1.6888	-0.0623833	1.47109
1.64674	0.0715485	1.30739
1.60555	0.0604502	1.46037
1.68994	-0.0943666	1.43646
1.21344	0.124538	2.06794
-0.286122	-1.11051	3.93362
-0.809321	0.107099	5.16382
1.52558	0.15664	1.67441
1.5214	-0.103665	1.72097
0.721642	-0.322356	2.38888
1.20833	-0.0640167	2.21383
1.30282	-0.367648	1.78098
1.4094	-0.422135	2.00831
1.6283	-0.298177	1.65101
1.0977	0.246897	2.09687
1.7845	0.10174	1.32286
1.64943	-0.301171	1.34939
-0.0243078	-0.15552	3.48415
1.18445	-0.0489972	1.87393
1.52101	-0.000304901	1.48261
1.66263	-0.249408	1.4905
1.66595	-0.0568906	1.50299
-1.12164	-0.983382	4.95111
0.990048	-0.180299	2.34928
1.00142	0.253871	2.00497
1.69185	-0.0131281	1.41745
1.37924	0.0740679	2.01473
1.55138	0.134884	1.4165
1.68502	-0.0397242	1.45446
-5.0552	-0.378843	12.4613
1.57743	0.0168841	1.61729
-1.47558	0.106713	6.26298
1.56176	0.137209	1.77276
1.23248	-0.297537	2.33296
0.754121	-0.539335	2.37082
1.55258	0.214514	1.79976
0.833368	-0.510253	2.2721
1.63052	0.159447	1.63866
1.11109	-0.117641	2.3375
-0.089719	-0.0433559	3.4592
-0.60544	-0.0682501	4.07124
-0.106405	-0.745321	3.93077
1.77555	0.00528492	1.30811
-1.14641	0.345544	5.407
1.71225	-0.200304	1.37033
1.34294	-0.249594	1.77319
-0.73542	-0.93027	4.53438
1.64383	0.125433	1.30589
1.6604	0.0762491	1.56893
1.83277	0.0680999	1.2257
0.496234	-0.535952	3.24729
1.66704	0.0500139	1.52819
0.396476	-0.866468	3.56765
1.13928	-0.206846	2.07762
1.52566	-0.170204	1.47916
-0.00578649	-0.146901	4.42607
1.33277	0.0824079	2.03482
1.35236	-0.35283	1.7071
-2.18932	0.155628	5.92549
0.825198	0.132672	2.23343
-1.41228	0.95163	5.44244
1.83386	0.0691032	1.23387
1.11439	-0.326593	1.92305
0.982323	-0.580961	2.54531
0.445639	-0.482036	3.17315
1.80368	0.0244787	1.29796
1.01772	0.0831207	2.00236
1.42765	-0.178827	1.62405
1.06923	-0.386269	1.98212
1.41563	-0.0466239	1.56447
1.42397	-0.0573781	1.55591
0.946903	0.134594	2.07992
1.19992	-0.204784	1.83778
1.79864	-0.0904374	1.24456
0.878169	-0.559322	2.22387
1.39975	0.146602	1.7679
1.65306	-0.0214772	1.5281
0.83102	-0.497575	2.27566
1.02295	-0.329416	2.03178
0.801049	-0.199731	2.28286
1.51064	0.065098	1.50155
1.70468	-0.128494	1.45028
1.32743	0.113096	1.78188
0.530851	-0.420392	3.31193
