ply
format ascii 1.0
comment COMP5421
obj_info vtkPolyData points and polygons: vtk4.0
element vertex 340
property float x
property float y
property float z
element face 0
property list uchar int vertex_indices
end_header
2.37299	1.16131	4.52516
2.58742	1.10519	4.45962
1.90132	1.40495	4.56429
3.02981	-1.20059	4.54071
2.48143	0.00462637	4.60713
2.62754	-1.32978	4.69242
2.15079	0.219767	4.69352
3.87748	0.615964	3.60142
2.53767	-1.26855	4.70996
4.45273	-1.34268	3.53275
2.99809	1.023	3.83807
2.97791	-0.197056	4.45668
6.94639	0.140589	2.9838
3.09508	1.08646	3.80088
2.27041	0.23211	4.64826
2.45756	0.220761	4.59655
2.02791	1.39561	4.51864
3.19695	0.797189	3.76214
4.03262	-1.13216	3.79117
3.25396	-0.745485	4.42374
2.13876	-0.887486	4.80061
4.28061	-0.376614	3.76541
2.3616	0.325956	4.60196
4.90497	0.58851	3.25795
2.9192	0.630736	4.39233
2.17889	-0.960978	4.79374
2.46593	-1.31731	4.74096
2.19352	-0.925658	4.79047
2.59053	-1.10884	4.6762
2.28768	-1.28355	4.80328
2.55869	1.1041	4.46014
3.02293	-1.09116	4.53621
2.46238	-0.890186	4.69855
2.88555	0.976333	2.74832
3.18564	1.06568	2.91378
6.59663	-1.49964	3.35316
2.19352	-0.925658	4.79047
2.77679	-0.182321	4.53298
2.01013	1.38699	4.5298
2.15369	-1.07514	4.83022
2.50475	-1.08578	4.70773
2.50718	0.868712	4.5036
2.83438	0.95614	4.39339
2.18907	-1.27834	4.84807
6.59425	-1.97695	3.40389
2.46593	-1.31731	4.74096
2.54117	0.65419	4.52646
5.34133	-1.65103	3.8072
2.88541	0.55544	3.93515
3.19423	1.04419	3.77512
2.82809	-1.20377	4.60385
2.90313	0.832471	3.88257
3.69372	-0.109738	4.3443
2.85228	-1.65514	4.64811
2.86015	0.0107985	4.47115
6.86911	-0.421088	3.08555
1.9398	1.32165	4.55781
2.06624	1.15011	4.63339
4.18874	-0.199272	3.68313
3.65701	0.65702	3.67052
2.19286	0.493622	4.65347
2.11569	-1.16181	6.14672
2.58441	0.797988	4.49123
6.33336	1.95458	6.69402
4.15691	0.0237398	3.75893
4.13853	-0.100873	3.6892
6.92438	-0.0191022	3.0592
2.53277	0.492138	4.51969
2.45455	-0.870839	4.69889
2.01749	1.28258	4.53257
1.98112	-0.823383	2.86853
2.97658	-1.29234	4.57533
2.67674	0.207043	4.52353
2.58685	-0.708967	4.64234
3.12339	0.774268	3.7855
4.11776	-0.0958789	3.70566
2.64335	-1.07163	4.65977
2.89005	0.625446	4.39277
2.70396	-0.176436	4.54457
6.89845	-2.02601	3.26312
2.36645	0.336435	4.60023
2.0195	0.198823	4.73445
2.0683	0.811682	4.65815
2.68664	1.07996	4.42391
2.73602	-1.05929	4.62277
6.63363	1.05913	3.08134
2.28128	0.0186309	4.66863
4.19702	-1.11685	3.73612
3.80959	-1.11337	3.87205
6.93282	1.029	2.95984
2.63173	0.00509567	4.5626
3.29336	-1.29561	4.45767
6.9232	-0.721003	3.1289
2.33426	0.659955	4.59426
2.95003	0.53772	3.9166
6.92535	0.00499382	3.05653
3.96832	0.200006	3.70973
2.28819	-0.508995	4.7239
2.22906	0.797236	4.60841
1.88006	1.30818	4.57505
2.0872	0.805221	4.65773
2.42563	-0.362625	4.66953
6.60453	-1.49485	3.34336
2.90722	-0.207713	4.48214
3.17578	-1.73505	4.54427
6.94505	0.864932	2.89884
2.95003	0.53772	3.9166
2.80362	0.651496	4.43425
2.30973	0.0233612	4.65691
3.14173	-1.64745	4.54752
1.59091	-0.762902	4.17771
2.21242	0.221908	4.67326
4.28062	-0.79679	3.76934
4.82439	0.518198	3.28932
2.46683	1.12205	4.4928
6.92949	0.333959	3.02401
2.66373	0.932626	4.46438
3.29951	1.07242	2.61713
3.16739	-0.908051	4.47445
2.55286	0.581581	4.49736
4.32	-0.550138	3.7519
2.52055	-1.27368	4.72123
2.8491	1.25118	4.27058
4.15335	0.519467	3.50825
2.45028	0.684403	4.05132
3.55623	-0.191687	2.75568
5.74271	0.13805	3.49252
6.9165	-1.52181	3.19888
4.10226	-1.93999	4.23809
9.39901	3.27724	8.60073
2.80216	1.13978	4.38466
3.82136	0.320541	3.47638
1.97582	0.892842	4.67547
2.46403	-0.516137	4.66482
2.42866	0.294043	2.44019
6.92561	0.984329	2.97795
2.89963	-0.347583	4.49678
2.7584	-1.03269	4.61677
2.44748	-1.28291	4.7495
2.9795	0.877651	3.85562
2.23895	-1.28449	4.82061
3.6654	0.622167	3.66971
3.15232	1.14155	3.75874
2.22115	-0.492375	4.73926
3.19456	-0.523644	4.41282
3.09796	-1.60787	4.55435
2.0924	-0.869867	2.97776
2.64257	1.12207	4.43995
4.07261	0.100566	3.63268
2.87402	0.526929	4.41442
7.18193	1.95608	4.62948
6.68632	-2.37586	3.5399
6.88796	1.13781	2.94142
4.48599	0.707887	3.32412
4.26606	-1.11213	3.71011
3.0661	0.81741	2.03507
4.09752	-0.150196	3.7851
2.90638	0.0346454	4.45935
2.84298	-1.03072	4.59015
1.97582	0.892842	4.67547
3.50574	-0.621799	2.10127
2.7689	0.0263714	4.49939
6.62036	0.812028	3.11876
3.16805	0.630434	3.83858
13.8656	-6.0483	10.2061
2.7308	-0.0409479	4.53266
2.79913	-1.2046	4.62439
1.90766	-0.76644	5.66686
5.35997	-2.08223	3.83759
2.40104	1.16562	4.51556
1.82675	1.42403	4.58239
6.63259	0.977617	3.09251
2.18675	0.233272	4.68285
2.24944	1.16797	4.56398
5.64246	-1.15532	3.53836
6.93536	0.966376	3.00084
7.00886	1.64866	5.72452
2.94909	0.556007	3.91407
3.70954	0.278498	3.98061
6.54785	-0.485934	3.24843
2.77239	0.314757	4.48006
3.05216	-1.63754	4.57845
3.0917	0.872923	3.81914
3.65466	0.534263	3.68459
3.58781	-0.465969	4.07465
1.79733	0.419728	4.81755
2.38869	-0.891153	4.72207
2.10875	-0.374415	5.88405
1.50684	0.55475	4.15962
4.43426	-1.3771	3.60966
3.93749	0.0688124	3.81053
2.36559	0.539272	4.57728
2.42924	-0.890097	4.7095
2.60638	0.193554	4.54444
2.94319	1.18228	3.91655
2.82352	-0.550271	4.55316
4.22505	0.606416	3.48385
2.60843	-0.709907	4.63574
3.50585	-0.754907	4.04438
2.81461	0.156679	4.48045
3.45866	0.936329	3.7235
4.3142	-0.588038	3.7379
2.6618	-0.697554	4.62068
2.29442	-0.744948	4.73987
2.74916	0.476994	4.46634
2.53592	-1.20407	4.70629
3.88226	-0.577003	3.66766
3.17978	-1.70247	4.54201
3.48542	0.100652	4.07458
3.9297	0.85271	5.40094
5.93867	-0.433957	3.47627
2.73519	-0.342436	4.56848
2.80594	0.637241	4.43281
1.97479	-1.09961	4.8839
2.49564	1.18647	4.47219
6.14507	0.568971	7.12371
2.67136	1.08584	4.4303
2.87884	0.537899	4.41409
3.98868	-1.3806	3.80785
2.39574	0.670953	4.56837
4.5571	0.581103	3.37815
4.24027	-1.27247	3.65348
2.82016	0.773842	4.41667
3.46289	0.773152	6.89999
3.29234	-0.92767	4.42069
4.99726	0.666056	9.18084
3.17071	-1.72555	4.54862
5.50644	-0.188949	2.97104
6.57165	-1.53756	3.37074
2.64709	-0.886658	4.64025
5.67727	-0.406194	3.57431
3.50182	0.0197283	4.07025
4.89385	-3.41014	13.0411
2.71801	-0.19726	4.56286
2.97549	-0.598416	1.76421
6.91501	-0.328082	3.52895
6.20039	-1.46862	3.48823
3.25952	-1.29776	4.47289
4.31126	-0.198917	5.46866
2.75972	-1.14245	3.31643
3.17705	-1.2952	4.50805
3.01888	0.208689	2.75174
3.81194	-1.52501	2.98943
5.10714	0.495341	3.19903
3.89761	-0.878476	2.66865
4.55094	0.0358047	4.08208
3.09612	-0.19417	2.66811
2.52657	-0.886173	4.68265
3.00865	-1.52476	4.5814
6.59345	1.16676	2.77078
3.98957	-0.704844	3.84079
5.20633	-1.28469	3.80059
1.71451	0.515299	4.41035
2.29712	1.08478	4.54899
3.22187	-1.45314	4.27667
2.67451	-1.35662	4.67209
5.55794	-0.848814	2.89837
3.24012	-0.0296574	2.91555
4.0968	-0.119302	3.75444
2.49247	0.957984	4.4948
2.19815	0.243944	4.66985
4.17783	-0.184854	3.7192
3.6401	0.388092	1.94393
2.69653	-1.05543	4.6413
4.11003	0.0674381	3.59641
4.92798	-0.272267	2.91635
3.43893	-1.48656	4.43134
4.04896	-0.881853	4.05918
2.89186	-1.20435	4.5856
2.47103	0.294274	5.23312
2.66022	0.379783	4.50006
2.84496	-0.206258	4.50326
3.04063	-0.357338	4.44803
2.00414	1.31043	4.53483
9.55315	-2.24616	9.07982
3.76589	0.289443	4.09606
3.11105	0.27467	4.09813
4.16761	-0.135421	3.66996
2.70062	0.346414	4.48623
4.08415	-0.611355	3.82598
2.77568	1.14987	4.39502
2.34395	-1.32011	4.77884
2.36739	-0.290622	3.61376
2.19124	-0.00708882	4.7013
4.49228	1.19365	8.61702
3.64003	0.292123	4.01213
3.46346	-0.643926	3.32145
2.1605	-0.723381	3.83776
5.68037	-0.0388371	5.5982
2.35184	-0.753443	3.94782
5.61685	-2.10407	3.57193
2.87553	1.05022	4.36313
2.13006	-0.425577	6.20724
4.36025	-0.972092	3.63714
3.04704	0.535397	2.08277
3.38759	0.311853	4.09506
2.63729	-0.701395	4.62768
2.71824	0.387232	4.48305
4.17909	-0.242981	3.71529
2.25928	0.218874	4.65118
6.27035	-1.78872	3.49427
4.94414	0.589027	3.24067
2.64395	-0.36004	4.5886
5.21604	-1.66103	3.84425
5.06058	0.0820732	3.55143
2.56621	-1.16543	5.04959
2.50918	0.531388	2.19198
3.87813	-1.55692	3.94118
2.92029	1.10605	4.35539
3.05997	0.178654	4.39688
5.15739	0.146118	3.51349
1.85756	1.23409	4.82647
4.24701	-1.22509	3.16595
3.56917	-0.119565	4.07451
3.30232	0.663552	3.78905
4.02276	-1.56601	3.90163
9.40138	0.949927	7.84932
2.86014	-0.346653	4.51715
2.7332	-1.07451	4.62265
2.53084	-1.28356	4.71304
2.04939	1.10519	4.63274
2.58654	0.937771	4.47914
2.90202	0.314648	4.43461
4.3708	0.663615	4.59234
3.12304	-0.666286	4.45566
3.17234	1.04583	3.78081
3.31122	-1.40669	4.45992
4.37914	-0.15127	3.86563
2.82828	0.310696	4.45847
6.61362	-0.778944	3.51677
3.5898	0.245228	4.02988
5.37336	-1.80418	4.84312
4.00109	0.0302491	4.59876
5.11859	-2.02453	3.92298
2.77625	0.182398	4.49116
7.1539	-2.11579	4.17204
13.1811	4.02239	10.7152
6.22857	-2.13144	3.54596
3.23805	0.779719	2.88341
4.02379	-1.38232	3.77157
