ply
format ascii 1.0
comment COMP5421
obj_info vtkPolyData points and polygons: vtk4.0
element vertex 408
property float x
property float y
property float z
element face 0
property list uchar int vertex_indices
end_header
2.05582	-0.912117	4.65015
1.25033	0.786002	4.77928
2.97521	0.585817	4.02904
2.26247	-0.57202	4.65555
3.16655	0.577266	3.94197
2.81408	-0.123455	4.48602
1.63721	0.766517	4.61413
0.709842	0.00483668	5.59637
1.60881	0.727373	4.62348
0.516435	0.954216	5.59502
2.49937	0.679952	4.23341
3.36023	1.0663	3.79804
1.63264	0.641833	4.62038
3.02318	0.27721	4.36015
3.29261	0.221307	4.24359
3.96821	-1.03836	4.27768
2.23068	0.901092	3.20034
3.39383	-0.63375	4.47814
1.50198	1.16095	3.48127
0.837414	-1.07993	5.66892
0.402713	-1.33588	5.87223
2.02333	-0.151917	4.71421
0.45781	0.529649	5.6503
2.38673	-0.232278	4.57393
2.15431	0.814988	4.29864
2.41998	0.59139	4.28296
1.98462	1.04102	3.29657
4.0601	1.08044	3.99576
4.54647	-1.15274	4.01181
2.26058	-0.0224427	4.52462
2.95209	0.107185	4.32923
3.7549	-1.26146	4.39417
3.3556	1.15526	3.77044
1.67459	1.07748	3.43146
2.79332	-0.934238	4.44924
1.44098	1.19548	3.4663
3.25966	-1.22376	4.6005
0.155674	0.961285	5.7454
0.554768	0.933388	5.57689
3.00808	-0.0467584	4.39586
0.691006	0.317667	4.32353
1.23576	0.652188	4.793
0.117359	1.07827	5.74686
1.99633	0.686702	3.26319
2.06671	0.176949	4.66414
3.41235	-0.490201	4.44755
0.788251	-0.471452	5.62545
2.3074	-0.340722	4.59425
-0.825976	0.545874	6.55706
2.69375	-0.163149	4.4238
3.39727	-1.13921	4.54155
3.66486	-0.662582	4.35499
0.379768	0.593365	5.67823
1.61929	-0.115797	5.02293
1.68387	0.323454	4.94823
1.89109	1.1654	3.27272
1.69132	0.990943	3.42895
0.219342	-1.29197	5.96262
0.525379	0.565039	5.60804
2.05631	0.968524	3.26907
2.40404	-0.078194	4.53581
0.199684	-0.465121	5.86818
1.03583	-0.452986	5.50702
1.22985	-1.39708	5.52702
0.856647	-0.541751	5.59748
0.240973	-0.654594	5.87519
4.24829	0.571213	3.95299
4.32786	-0.951867	4.10158
3.76407	0.204103	4.22046
0.895625	0.429855	5.48818
2.13782	-0.522518	4.70301
2.18588	2.38382	7.11526
0.495429	1.28959	5.56974
-0.235674	1.46065	5.76146
3.86484	-0.188766	4.21809
1.35728	1.74477	8.58112
0.517503	-1.03514	5.79186
1.45095	0.133868	5.07916
2.63179	0.600059	4.18378
3.51824	-0.934347	4.46146
4.10545	1.07233	3.98333
2.23984	1.13797	3.12562
2.1296	0.761224	7.78624
4.47102	0.879877	3.83319
0.708649	0.452211	5.54793
0.734961	-1.20081	5.73233
2.61577	0.616174	4.18914
4.04827	-0.605683	4.17507
3.20763	1.08338	3.53323
1.69731	0.892863	3.43793
0.508919	-1.11187	5.80581
3.70466	-1.25125	4.93679
3.34433	0.343174	4.07912
1.80474	1.07784	3.37438
1.7362	-0.00615511	4.95849
1.39194	1.2042	3.4915
0.798774	-1.47123	5.72898
0.520489	-0.952675	5.78502
3.91715	-0.175857	4.20238
2.14707	-1.08729	4.65686
0.744394	-1.03959	5.68994
1.97502	0.703104	4.46729
3.35416	0.573915	3.85472
4.40173	-1.01328	4.06069
2.07204	1.71944	5.08938
1.63113	-1.5335	5.36338
1.37227	0.776976	4.72534
2.61412	0.380023	4.40815
2.25257	-0.242274	4.62015
0.318639	-1.29151	5.90875
2.451	1.23461	3.01626
1.54795	-0.0210771	5.04691
0.401337	-1.51355	5.90207
2.18479	1.01895	3.2143
1.79551	0.202597	4.90957
1.47967	0.203758	5.04794
2.58841	0.0764062	4.44343
3.34247	-1.24051	4.5761
0.366538	0.559984	5.68271
1.22695	0.746491	4.79303
2.64227	1.03202	3.16901
2.08967	0.258119	4.56115
3.03162	0.655497	3.99916
-0.044348	0.822533	5.83832
0.505222	-0.106526	5.70821
0.0500909	-1.08218	5.99637
2.19915	3.6665	11.1358
1.60881	0.727373	4.62348
2.19274	-0.569728	4.68342
2.15197	1.11124	3.19854
1.45095	0.133868	5.07916
1.56226	1.15613	3.45462
2.31839	0.301884	4.43655
2.35561	-1.0682	4.56779
1.01557	0.753191	4.8878
1.06849	-1.18474	5.57319
3.38566	-1.04136	4.53219
1.00608	-0.644114	5.53999
1.72242	0.730253	4.57272
0.288562	-1.27572	5.92719
1.61478	0.33728	4.98421
2.66579	-0.216953	4.4207
3.04471	0.0994493	4.35299
2.45744	1.11862	3.02116
2.94586	-0.0473647	4.43154
0.489794	1.27245	5.57341
0.0708526	-0.466113	5.92555
0.411236	-0.880643	5.81779
2.48812	0.695351	4.23975
2.20402	-0.547984	4.67959
5.16358	-0.823131	5.7611
1.94783	1.1615	3.24669
3.79646	0.197275	4.20045
0.793556	0.385672	4.54365
0.863343	0.446272	5.49835
0.594629	0.581158	5.59291
1.53043	0.665316	4.66735
2.3559	-0.562217	4.62178
2.12155	0.849638	3.25395
1.39606	0.663991	4.72309
4.35417	-0.863916	4.06159
2.22019	0.58866	4.36569
1.42928	1.17591	3.48814
2.98857	-0.359162	2.68597
2.57053	-1.46405	6.30755
1.31649	0.612072	4.7637
2.09833	-0.563885	4.72444
0.85866	-0.887672	5.62853
3.96759	0.91757	4.06819
0.365454	1.14697	5.62207
3.41103	-1.10996	4.52733
4.0205	0.469057	4.08848
4.39097	-1.25415	5.34556
1.48137	1.19439	3.44951
3.0099	0.592291	4.01608
2.02188	1.34661	3.95103
1.48456	0.663219	4.68598
4.45604	-0.658673	4.00044
0.565365	1.34298	5.5282
3.67695	-0.670587	4.34961
3.44596	0.552727	3.81794
1.29016	-1.1946	5.47883
2.42369	1.3881	3.99671
5.36833	-1.55437	8.06279
3.2957	-1.1093	4.57202
4.35446	-0.929016	4.07577
1.00441	-1.2653	5.61644
4.42077	-0.216006	3.96869
0.893808	-0.895217	5.61245
1.40868	2.32703	7.30337
1.93787	0.309413	4.71077
4.24246	0.471399	3.96543
1.60262	0.65271	4.6364
3.55414	-1.22361	4.47541
3.31991	0.553572	3.87366
4.47877	-0.188075	3.94043
1.62529	0.152739	4.90706
4.2659	0.218157	4.00233
0.819075	-0.973055	5.70515
3.56246	0.739317	2.7978
1.91244	-1.29222	4.64625
0.110263	0.382539	5.82038
2.73563	0.481189	4.2901
4.22983	1.15322	3.91296
1.80451	1.06541	3.1271
1.9387	0.39999	4.701
2.02472	0.716411	4.44149
0.531836	0.426643	5.63313
0.373741	0.854744	4.79426
2.26815	0.592083	4.34234
3.81471	-0.344864	4.26248
4.26957	0.479514	3.9524
2.25685	0.579169	4.34953
-0.0829404	-1.0618	12.3815
1.80474	1.07784	3.37438
3.08838	0.216758	2.46021
2.25878	0.342838	4.5045
0.576566	0.933953	5.56707
1.88022	0.991778	3.34623
0.225671	-0.708981	5.88654
1.02012	1.36384	5.15805
1.83655	-0.341576	4.71779
1.00255	-0.471194	5.51526
1.99155	0.398012	4.6769
0.789918	0.292212	5.53341
1.67075	-1.00148	5.29052
0.803301	-1.0146	5.67862
4.54862	-1.01205	3.99187
3.93913	-1.20302	4.31537
4.35938	-2.84692	15.8491
2.92644	0.279919	4.40818
4.34743	0.840083	3.89407
1.67773	-0.402842	4.99869
4.44644	-3.08493	16.073
4.75231	-1.19431	8.4955
0.445178	-0.0923039	3.6265
4.41327	0.87208	3.84908
3.17307	0.698818	3.93008
2.26362	-0.103474	4.63492
0.86531	0.0923673	5.51487
1.56258	0.723782	3.20422
0.462468	0.33832	4.71225
1.02164	-0.589381	4.30692
0.108824	0.354244	5.82572
4.20085	-0.656476	4.09975
1.46356	1.00405	3.53049
1.40826	-1.17975	5.42482
1.56038	1.00253	3.48941
0.595953	0.91532	5.55434
2.41146	-0.201439	4.55043
0.764406	-0.88537	5.67503
2.17657	2.28632	6.81574
2.48812	0.695351	4.23975
1.96558	-0.898362	4.67131
2.34292	-1.34209	4.56301
3.38236	0.613251	3.83849
2.34816	1.11251	5.0657
2.00196	-0.0743487	4.71984
0.284789	0.575579	5.72666
0.927189	-0.282975	5.53281
3.10781	-1.223	4.66784
2.57155	0.134579	4.37556
-0.0363667	0.799886	5.83748
2.39457	0.0459341	6.1897
1.2966	-1.40607	5.49371
4.01536	0.459964	4.07606
2.03257	-0.897797	4.6559
0.491115	0.649288	5.61856
4.06801	0.240574	3.67881
0.408059	1.07996	5.62306
-0.234358	-1.76599	8.14061
3.23627	-0.463129	3.66029
1.32075	-1.28258	5.47473
0.539981	0.113794	5.66008
-0.0403764	1.93237	8.57905
-0.110456	1.0482	5.84025
-0.376007	0.0620152	5.1842
0.311986	0.690173	6.00008
0.842162	-1.22626	5.11291
2.00613	0.162672	4.69556
2.95909	0.60068	4.03168
3.74332	-1.01452	4.35365
4.07006	0.222552	4.08951
0.398269	0.611606	5.67227
2.25158	-0.288688	4.63568
0.720897	-1.33376	5.7335
1.94957	-0.635053	5.13317
0.662357	-0.672304	5.69611
-0.073124	-0.31631	5.96943
0.0948338	1.20231	5.7484
0.822693	-0.0233738	3.08057
1.90049	-1.08028	4.77433
2.57805	-0.193042	4.45888
3.92867	-1.00506	4.2786
2.13201	0.633358	4.40146
1.23833	-0.588684	3.39178
4.06706	0.383046	4.0598
0.548508	1.30553	5.54051
0.673639	0.31602	5.5863
1.38363	0.634729	4.74046
1.50456	0.225213	5.04394
4.46052	-1.13413	4.05528
2.61858	-0.025163	4.43894
4.34274	-0.859778	4.0691
3.32469	-0.647964	4.52193
0.2526	0.77505	6.7739
1.89754	0.647641	4.50609
-0.149271	1.31462	5.83749
1.81415	-0.933357	4.75072
0.493007	-0.883762	5.78044
1.33064	0.283946	3.3079
0.361898	-1.10644	6.69487
3.29261	0.221307	4.24359
1.72327	0.183566	4.95238
2.06101	0.767329	4.41931
0.986086	-0.982656	4.2234
2.28035	0.614269	4.33973
4.41097	-0.191475	3.97067
0.998378	-0.495463	5.74244
2.44243	-0.150782	4.60509
4.06538	-0.629934	4.16504
4.46367	-1.143	4.05751
4.05792	-0.822102	4.2078
0.0227612	0.98203	5.79918
0.32913	1.0608	5.66307
3.84974	1.18717	4.08176
3.82677	0.124818	3.56286
3.99769	-0.171696	4.17045
2.16875	-1.34142	4.64776
8.19376	-0.386671	9.74631
4.42989	0.869971	3.84647
1.57754	0.859823	4.62612
2.32365	-1.06645	4.57331
2.31844	-0.0810108	4.4873
0.603907	0.897884	5.55876
1.06015	-1.06944	5.57033
4.44189	3.1217	9.2368
1.1117	-1.01056	6.40819
1.99788	-0.839755	3.61336
3.94404	0.226561	4.14648
4.38545	0.875422	3.86774
1.44071	-0.434284	3.63276
4.66528	-1.07519	5.4357
2.25076	-0.00862373	4.53163
0.140193	0.444936	4.20195
1.61787	0.158697	3.05689
1.53269	0.650665	4.66539
0.723996	-0.12507	5.61958
0.824054	1.23659	6.83755
3.9592	0.893331	4.07299
0.00474948	-1.29407	8.53042
4.35898	-0.671921	4.03655
0.627082	-1.08146	5.75524
1.15823	0.772797	4.82116
4.97098	-1.84009	8.24066
0.579747	-0.670867	5.73864
2.19626	1.14082	3.14461
3.6008	-0.774805	4.4025
1.49367	-0.894427	4.92693
1.40908	-1.39484	5.44241
0.40778	1.30124	5.60611
0.340512	0.28599	5.72624
0.0873917	-1.08775	5.98484
4.04602	-0.405622	3.93954
7.61069	2.49532	9.81522
3.27056	-0.512386	4.52421
1.90782	1.32761	3.31211
3.98472	-0.160889	4.16835
1.85372	0.647875	4.52503
3.90749	-1.00597	4.29799
2.21458	0.24106	4.39557
3.75392	-1.02574	4.36756
0.857053	-0.482165	5.61248
0.942854	0.748671	4.91286
2.40572	0.290492	4.42478
10.6136	2.96619	13.4879
-0.00602193	0.509981	8.12696
0.543874	0.61815	5.58622
3.33663	-0.647336	4.51217
0.594629	0.581158	5.59291
2.71829	-0.887405	5.62245
0.226008	-0.693331	5.88749
0.0739211	-1.29212	6.02401
0.0999389	0.619748	7.81484
1.10087	-0.85161	4.65352
0.734641	0.000257338	5.58314
4.24246	0.471399	3.96543
0.748005	-1.66477	11.6455
1.37669	-0.698684	3.14982
3.85019	-0.0759524	4.2062
-0.284581	1.62478	5.76488
0.918454	1.30918	4.8398
0.923636	0.657268	4.92653
0.946834	-0.0871072	3.7665
2.93117	-0.041713	4.95604
3.89732	0.645644	4.11236
1.19958	0.521891	4.96759
0.703665	-0.670956	5.67424
2.02242	-0.211065	4.70299
3.70398	-1.01447	4.3845
3.1291	0.16088	4.32007
1.91834	-0.194658	4.74686
0.387813	0.945583	5.64631
2.40854	-0.662001	5.7063
0.532432	0.600957	4.90529
1.88844	0.158534	4.74834
2.81102	0.0571487	4.48203
0.196026	0.0648566	8.66972
