ply
format ascii 1.0
comment COMP5421
obj_info vtkPolyData points and polygons: vtk4.0
element vertex 353
property float x
property float y
property float z
element face 0
property list uchar int vertex_indices
end_header
-0.0747469	-0.00868777	4.73171
-8.15691	0.213679	10.1299
-13.2503	0.579191	12.4581
-12.7853	0.78213	13.2147
-9.74069	0.133006	12.1241
-12.8481	-0.14644	12.435
-12.6148	-1.7862	12.4467
-9.62299	1.64027	12.1243
1.33994	-0.366863	4.74822
-1.96987	0.475988	4.86876
-11.1116	1.67196	12.2474
0.211747	1.13701	3.35516
-11.3941	0.802944	12.2991
-2.93384	-0.0231057	9.69606
-12.8776	-3.21091	12.4701
-13.054	1.87699	12.4498
-2.36501	0.366194	5.31341
-8.21306	0.614747	10.2116
-10.0662	-1.23764	12.2475
0.579659	0.799468	3.50268
1.94059	0.278745	4.50052
-5.50281	0.339552	7.57517
1.34942	-1.05527	4.81515
2.06906	0.553971	4.4339
2.18065	-0.323037	4.48067
1.0612	-1.04145	4.89727
-11.8188	1.64151	12.2899
1.92886	0.549231	4.48235
1.22885	0.637748	4.16043
0.457536	1.28154	3.45128
-12.8295	0.575712	12.3829
-12.074	2.43065	12.2964
-12.3779	1.31714	12.5119
-9.69585	-0.828143	12.1661
-11.0215	0.466605	12.2402
-10.3903	1.29702	12.1656
-10.7273	1.56353	12.232
1.97906	-0.725072	4.58514
-11.7242	-1.94795	12.5232
1.80563	0.655296	4.50645
1.85342	0.204631	4.53062
-12.8043	-3.36683	12.4982
1.78498	-0.598066	4.64184
1.28554	0.530991	4.29933
2.20497	1.024	4.32937
1.20048	-0.727535	5.19536
-1.25583	0.86916	4.91697
-1.81227	0.098831	4.46249
-8.75335	0.249799	10.4758
0.0266693	0.28474	4.80565
2.00143	-0.38915	4.54462
1.9969	-0.578517	4.56949
2.37116	-0.546794	4.44344
-6.73634	0.932339	8.68942
-12.825	0.473066	12.431
0.811702	0.878363	4.18548
-9.78966	0.96318	12.1521
-11.3614	-1.70349	12.3566
-9.73356	0.388311	12.1549
2.15624	0.568114	4.38964
2.01135	0.413067	4.45716
-12.054	0.512421	12.5116
-12.8242	0.561706	12.4142
-9.87464	-1.26501	12.1968
1.02774	0.690616	4.22002
-11.0537	1.2797	12.2634
1.42026	-0.226278	3.52761
1.54754	0.790587	4.57591
2.25076	0.272064	4.40525
1.78704	0.253844	4.5454
-2.34768	0.688088	5.78449
1.97732	-0.683058	4.58331
-2.48553	-0.921798	4.99945
1.33282	-0.914474	4.80599
0.0989524	1.26149	3.27283
0.545789	-0.554897	2.51107
-0.799026	-0.207231	2.90109
-9.33944	0.793135	11.2162
-10.4496	0.678168	12.2434
-1.17893	-1.00175	4.58548
1.61463	-0.56881	4.68587
-2.59638	0.865846	5.83634
-9.94619	0.768065	12.3134
2.04196	-0.958399	4.59259
-12.9744	1.60862	12.4093
0.642817	0.15801	3.0186
0.106411	1.30035	3.23285
-0.362188	0.185816	2.57519
-9.62147	0.293056	11.1415
0.329725	-1.05159	4.6643
-11.4	-0.844771	12.305
1.84787	-0.19565	4.5774
-8.59264	0.0671292	10.2765
1.77595	-0.573649	4.64611
-4.66248	0.596403	6.81115
-11.0652	1.6491	12.2718
0.735047	0.448628	4.67784
-5.78771	0.362593	7.87737
-1.24244	0.43756	3.99215
1.92939	-0.740851	4.6072
0.135345	-0.677295	4.4202
-11.033	0.500136	12.2819
1.72504	-0.57865	4.08018
0.0402451	-0.0469834	5.60408
-4.34011	-0.784175	7.74018
-1.04223	1.21674	3.64184
-0.155449	1.27015	3.3404
0.595386	0.422416	4.72485
-14.0865	0.614823	13.3721
-0.502456	-0.17285	4.94558
1.96685	0.568272	4.46795
-1.2227	-0.649283	3.36382
0.502301	-0.37362	4.81652
-12.9235	1.58356	12.4285
1.0913	0.672715	4.20449
0.559552	-1.08486	4.69294
1.43816	-0.182637	4.69746
-10.3609	1.04486	12.1455
-8.13422	-0.264294	10.153
-6.81092	0.364568	8.16626
-6.3584	-1.74613	9.57608
-3.34653	-1.52739	5.01685
2.27045	-0.227817	4.44405
-9.77418	0.760381	12.1497
-2.09375	0.355137	4.88229
-10.3702	1.08083	12.1885
-13.1925	1.0086	12.3719
1.2826	0.148144	9.4406
0.402753	1.27856	3.42381
-1.77175	-0.160963	4.42254
1.65697	0.609608	4.5594
-1.65176	0.383547	4.49869
-11.1102	1.63511	12.2077
-8.99614	-4.4571	12.2584
-13.0344	-0.146363	12.3513
-0.035023	-0.1271	4.75434
-2.2827	-1.19325	5.73211
0.286782	-0.569156	2.71902
-3.21442	2.87385	7.28755
-1.20041	0.222994	2.81806
-2.12319	-1.30422	5.8624
-11.8087	-2.52717	12.5673
1.95128	0.429192	4.48613
-12.3758	1.04905	13.1734
-13.8158	0.856605	14.08
1.52586	-0.191067	4.67494
-12.5477	1.65042	12.384
-11.9183	-2.49418	12.7303
-1.94681	0.478056	5.67774
2.04759	0.758605	6.39081
-0.994279	-0.934436	2.90123
-10.2711	-0.443912	12.2196
-1.27068	-0.872882	3.65472
1.65482	-0.1569	4.6345
-0.410811	-0.0674816	4.73967
-12.2886	-4.72817	12.4404
2.34736	-0.202023	4.41964
-4.60345	-0.824907	6.71574
-10.3105	0.13414	12.1951
-8.35542	-1.33747	8.65789
-9.58949	2.06172	12.1019
-0.254802	-0.274974	4.86522
1.51233	-0.902094	4.74784
-3.83504	0.888991	6.45523
-10.4403	2.05063	12.1407
0.821036	0.655398	4.84181
-11.796	2.03731	12.3081
-12.819	-3.54536	12.4532
-1.82545	0.114135	4.59467
-0.607183	0.200459	2.81088
-0.579201	-0.419183	3.10301
-1.62856	-0.885493	5.70687
0.108013	-0.518087	2.20205
-0.344152	-1.22865	4.28722
1.37869	-0.717895	4.7753
2.28032	-0.788888	3.83239
-9.58734	-3.80672	12.2772
-2.44752	-0.5702	5.96176
-1.80253	-1.07761	5.76505
-1.20315	0.503164	5.2678
1.94011	0.0501117	4.52867
1.62584	-0.983409	4.72135
-11.9216	0.225788	12.4953
2.21985	0.850431	4.34205
-10.1332	-1.28638	12.2367
-2.6217	0.898532	6.8543
2.06499	-0.190877	4.51702
-0.0457568	-0.139716	4.7593
1.49728	-0.535285	4.71563
2.0895	-0.721175	4.56012
1.89405	-0.380069	4.58604
0.839675	0.419183	4.65833
-3.7484	-1.24849	5.26839
1.6804	-0.297441	4.79514
-0.206429	-0.0677177	3.20056
-12.2998	2.26574	12.228
-1.25583	0.86916	4.91697
0.76019	0.123804	4.67364
-1.01801	-1.23936	4.98931
-0.559164	0.0761057	5.68126
-11.3776	-1.8805	12.3604
1.74786	0.899149	4.51152
-1.99044	-0.0849838	3.56466
-0.510787	-0.129824	5.63618
0.122871	-0.251433	2.45001
0.0585989	-0.748095	3.04824
-12.311	-0.908722	12.3056
-1.0512	1.19626	3.65463
-12.0013	-3.99386	12.4291
-2.44689	-0.96557	6.50799
-9.72951	0.17378	12.1648
-0.222783	-0.192168	3.56944
-12.9057	-3.50791	12.5164
-0.384471	0.0335246	4.91681
1.42142	-0.551728	4.73924
-3.03399	-1.08802	7.16941
-0.603121	0.331713	4.37654
-4.73692	-1.68654	6.17623
-0.846005	0.059803	2.6528
-2.39107	0.0700297	6.44702
1.71405	0.570605	5.31578
1.19292	0.779127	4.15904
-1.64159	0.182166	3.35164
-13.1519	0.719864	12.4345
-1.29499	0.595759	5.11738
2.12131	0.438919	4.42651
0.058886	0.964806	3.01826
-2.06359	0.419544	5.7209
-10.2405	-0.110957	12.2443
-12.6937	-2.00078	12.46
-9.2908	-2.99615	12.3494
-0.437936	0.357805	4.54597
-0.147584	0.66436	4.59022
-2.8022	-0.203255	5.12266
-1.23128	0.368092	4.8087
1.90858	-0.0423543	3.57326
-0.285596	-0.30793	2.58633
1.7592	0.0961872	4.57479
1.922	0.273194	4.50479
1.86345	0.0289147	4.54724
-3.10339	1.04491	6.96514
0.162657	0.581791	4.62017
-0.519687	-0.0226185	3.47603
-10.7679	-1.53687	12.3139
-12.8614	-0.968993	12.3397
-0.891735	-0.733123	5.13267
-1.9025	0.374297	5.34915
-1.78273	-0.575223	3.47985
-4.3293	-0.491837	5.60209
-2.47521	0.854192	6.56517
-0.299961	0.131604	2.55142
-4.3903	1.44428	9.49675
1.63052	-0.970898	8.48686
2.34665	0.264823	4.37637
-9.85707	-2.09136	10.8124
-11.5202	-3.49301	12.4572
-2.11583	0.31713	5.74664
0.389713	-0.254771	3.11873
2.24032	0.605165	4.35225
-5.01501	0.101441	9.53757
1.06355	1.27602	4.14831
1.58301	0.0298664	5.34705
-10.7305	0.380544	12.2453
1.21176	-1.6512	8.36222
-4.03905	-1.15856	8.00416
-12.9561	-3.13648	12.5592
-11.7599	-3.47167	12.5519
-9.12732	0.22125	10.0018
-1.71973	-0.473322	5.6969
2.07834	-0.243561	4.50711
-0.25514	1.19653	3.39885
2.25426	0.622382	4.35208
0.86961	0.670049	4.27209
2.07861	0.73626	4.41065
-0.885803	0.0222014	8.32674
2.07666	-0.74255	4.55974
2.37016	0.565338	4.33249
1.27752	-1.13237	4.84924
-2.09478	-1.01672	3.74092
1.95104	-0.626227	4.36378
-12.1374	-0.717917	12.3892
-3.47922	-0.79349	4.95307
-0.755186	-0.793245	4.13575
1.59332	0.770597	4.56768
0.769761	-0.167137	2.89358
-0.499848	-0.773299	3.05457
1.59881	-0.0820866	4.63348
2.24969	-0.18095	4.45314
-0.988433	-0.689927	3.40834
-8.41661	-2.90022	8.61697
-12.1208	-2.19049	12.5302
-12.2218	-1.92221	12.6033
-0.526252	0.381257	5.72722
-0.251522	0.233652	4.45715
-12.4553	2.07975	12.3624
-0.486432	0.114077	2.73655
-1.53153	-1.41883	6.09821
0.732552	-0.147463	4.72134
-3.53768	-1.78188	5.23309
-0.693861	-0.46929	3.07809
1.5913	0.212904	4.60104
0.308172	-0.154164	3.30406
-0.208235	0.909166	4.51443
0.707873	-0.590759	2.65468
0.100533	-0.0645572	3.41264
0.652618	0.394411	2.77718
-12.1667	-2.32694	12.5811
0.453306	0.245509	4.20849
1.68848	-0.373121	4.64965
-0.134597	0.307635	3.72029
1.70255	-0.0553368	4.60297
0.418264	-0.449317	2.58799
0.712071	0.00851131	4.68426
1.84948	-0.718276	4.62641
-4.65578	-2.1755	7.70124
-11.8057	-3.49226	12.5339
-1.14054	-0.111348	2.88326
-1.96241	-0.151986	3.67997
-1.28307	-0.308119	2.97672
-0.194558	-0.573225	4.90444
-11.7848	-3.55722	12.605
-1.17423	-0.783359	3.51703
2.25909	-0.543432	4.47264
0.136388	0.340837	4.72923
0.461533	-0.158183	3.1418
1.72931	0.277354	4.93583
-0.361039	-0.519278	5.04349
-9.33991	-3.69225	12.2542
-12.1607	-1.94579	12.5479
2.25073	0.450018	4.37869
-1.62226	-0.875268	4.2457
-7.0722	-0.600468	16.5457
-7.0958	1.04376	9.85848
-11.0913	1.29999	12.2303
0.955485	0.422975	4.60773
-1.91767	0.657881	7.62439
-10.2324	-1.35131	12.2134
2.36193	-0.801431	4.47673
2.09365	-0.262463	4.49889
2.25535	0.473176	4.37467
-0.139591	-0.147319	2.39677
2.19229	0.879294	4.34778
-2.38685	-1.88191	6.00228
1.87945	1.07819	4.45629
-4.49606	-0.361027	5.81031
0.953871	0.584815	3.44085
-3.42232	-0.637452	5.05191
-8.66396	-1.01905	8.83595
-12.2016	-0.685794	12.4184
-2.86686	0.591991	5.93649
-12.3652	-0.886737	12.3793
-11.9622	0.967508	12.4562
-12.8005	-3.75294	12.4976
