ply
format ascii 1.0
comment COMP5421
obj_info vtkPolyData points and polygons: vtk4.0
element vertex 384
property float x
property float y
property float z
element face 0
property list uchar int vertex_indices
end_header
2.64957	1.16107	4.37321
2.75389	0.0407831	4.45943
2.44536	-0.839287	4.66767
3.45978	0.112582	4.03115
2.44249	1.1267	4.45555
2.72494	-1.02441	4.59226
2.17899	-0.957477	4.76749
2.62482	-0.684119	4.59186
4.17922	0.985535	2.33081
2.92345	-0.172325	4.44461
6.4509	-1.28942	3.28838
6.46475	0.35786	3.10635
2.27073	1.14701	4.50788
2.78569	0.652566	4.38898
2.53963	0.590099	4.45652
2.62146	0.625007	4.43964
3.38252	0.55785	3.72706
3.3028	1.01544	2.64742
2.64413	0.386493	4.45491
3.15516	0.54411	3.80162
2.00066	1.3734	4.48866
2.50751	1.13645	4.42713
6.20551	-1.72339	3.419
3.02541	-0.795547	4.46006
2.26101	0.226658	4.6094
4.26629	-0.547348	3.70976
2.79381	-0.994975	4.56656
3.3028	1.01544	2.64742
2.37454	-0.33676	4.6414
4.708	0.0810372	3.59402
3.6283	0.535378	3.64713
3.90692	-0.923647	3.73101
2.73206	-1.00805	4.58598
2.72059	-0.0807727	4.48655
3.88138	-0.927635	3.739
2.02652	1.3067	4.48158
3.29401	-0.678422	4.34874
2.59353	0.327193	4.49098
2.82731	0.540658	4.38194
2.98982	1.14377	3.7694
3.29974	0.635047	3.74859
2.33128	-1.24478	4.75376
3.63809	0.621296	3.63131
3.14861	0.623174	3.80233
3.56105	0.920218	2.25136
2.38022	-0.859558	4.69176
2.13734	0.19791	4.65182
3.03298	0.569065	3.84807
2.61278	0.850036	4.41894
2.11936	1.13103	4.55883
2.66442	-1.31716	4.64365
6.4803	0.552963	3.08503
4.8192	0.510201	3.23549
4.29258	0.703792	3.34112
2.57044	1.09584	4.41173
2.11998	0.457738	4.6311
5.0576	1.00305	4.01872
1.56686	0.495372	4.92431
2.80775	-1.06113	4.56994
6.49618	-1.43386	3.27797
5.90564	-0.391972	3.39
2.7011	0.393691	4.43682
6.40606	-1.18162	3.29243
2.32185	0.661252	4.5502
2.32275	-0.666474	4.69709
3.04234	-1.00179	4.47847
2.17242	-0.928605	4.76591
2.61722	-1.29002	4.66225
5.99964	-0.390579	3.35027
3.38314	0.849977	2.06616
5.99375	0.454589	3.25897
3.83145	0.00762218	3.75084
2.89094	-0.665568	4.49978
2.46385	-0.855959	4.65478
3.39137	0.842705	2.04176
2.96288	-1.2528	4.54312
2.26342	-1.24616	4.78624
4.09788	-0.336923	3.75822
3.00729	-1.0544	4.50023
2.40154	-1.21835	4.72715
3.16231	-1.36268	4.48023
4.04201	-0.603298	3.791
2.40797	0.239622	4.56124
4.26229	-0.141768	3.63701
2.73382	-1.10742	4.59854
2.20441	0.502818	4.60099
2.65065	0.0251153	4.50415
2.13925	1.14286	4.56047
2.58089	-1.07362	4.6469
3.48778	-1.25597	4.35044
1.8712	1.29483	4.53063
3.05244	-0.652142	4.44211
3.2738	-0.894042	4.38385
9.86973	3.17599	8.21775
2.68494	-1.01996	4.60856
2.90438	-1.16269	4.55055
2.26342	-1.24616	4.78624
5.99635	0.382241	3.26431
4.03972	0.137113	3.55642
2.75955	1.12167	4.35813
2.71971	0.76656	4.39256
2.90415	1.14807	3.80203
2.72999	-1.05565	4.5989
2.7326	0.48186	4.42261
3.5797	0.234276	3.97724
3.12502	-0.97735	4.44908
4.23686	1.84503	13.8455
3.20649	0.942037	3.72865
2.51706	0.0567397	4.54423
3.82843	0.539011	3.57373
2.56103	0.205531	4.51732
1.89275	-0.104961	2.651
2.85695	-0.892516	4.53714
3.33737	-0.778881	2.64934
3.76128	0.547495	3.59318
3.44152	-0.0829878	4.05699
3.01466	-1.16206	4.50614
4.68234	-0.620581	3.68494
2.77371	0.338365	4.42979
2.81239	-1.35413	4.60041
8.68135	-1.0969	10.785
6.48695	-1.61654	3.31075
3.07884	0.184939	2.14598
2.79381	-0.994975	4.56656
2.63263	0.197004	4.49142
2.80879	0.652987	4.38086
2.14669	-1.04011	4.79964
4.07163	0.185354	3.52542
1.58262	-0.201276	4.91342
3.70158	0.393309	3.75133
2.72471	-0.668016	4.55451
4.06	0.166402	3.52492
2.94695	0.643391	3.87112
5.99635	0.382241	3.26431
3.14111	1.059	2.94951
4.1173	0.0244832	3.73654
3.2991	-0.836692	3.22874
3.39085	-1.22268	4.38872
2.30245	-0.859191	4.71633
4.18195	-0.0593778	2.35902
2.72781	-0.861506	4.57693
6.73892	2.78611	7.66262
6.12228	-1.19339	3.39494
2.87094	0.557721	3.90397
2.25936	0.242521	4.60578
5.02864	0.439224	3.28826
4.49113	-1.02883	3.57004
2.73614	0.922041	4.38324
2.63784	-0.879373	4.61277
2.45577	-1.27695	4.7077
4.07681	-0.121204	3.73401
2.94263	-1.23129	4.54623
2.45577	-1.27695	4.7077
1.85864	1.26198	4.54894
3.33908	-0.23073	6.68618
2.56023	-0.973836	4.64354
2.25893	-0.774285	4.15065
4.88119	0.585211	3.188
2.4958	-1.0507	4.67869
3.98597	-0.117711	3.41268
3.91588	-1.33871	3.76847
2.5496	0.795285	4.45252
2.54934	0.932331	4.4458
2.81361	0.941783	4.35579
4.42019	-1.29959	3.49914
2.21754	0.795646	4.56418
2.30036	0.0380571	4.62134
6.00458	-2.57824	16.3278
2.28776	0.215089	4.60035
2.48376	-0.345993	4.59941
3.32418	-1.36432	4.41725
2.88014	-1.23689	11.8727
5.53261	-1.04755	3.5979
1.69356	-0.314389	4.68064
2.7988	-0.912641	4.55224
2.54352	0.0288872	4.53918
2.71716	0.82193	4.38646
3.85925	-0.134885	3.79871
6.46154	-1.00726	3.25058
4.44926	0.510999	3.34775
5.70619	-0.533948	4.53396
2.03614	0.318639	4.68062
5.11691	-0.684803	3.71335
4.13651	-0.136489	3.63327
3.50972	-0.171399	4.05318
2.60176	0.385534	4.47831
2.41769	0.195516	4.56568
2.79773	0.168442	4.43707
2.35299	0.223116	4.57932
2.77362	-1.42006	4.61719
3.38882	-1.43598	4.4112
2.75642	-0.673928	4.55444
2.74899	-1.1733	4.60572
6.47696	-1.58999	3.31039
2.85706	1.15454	4.30431
4.29728	-0.131178	3.85582
2.13352	-0.857157	4.77668
6.02939	-0.160409	3.31614
2.4784	-1.16707	4.69954
2.74353	0.620974	4.39772
4.28912	0.97098	2.3039
6.19216	-1.7125	3.43156
3.17682	-1.44416	4.48212
1.96623	-1.07538	4.85621
1.81415	-0.096394	5.10902
2.18614	-0.893315	4.75931
2.55142	-0.988528	4.65573
2.15916	0.323159	2.74269
3.28276	1.03568	2.61263
6.38579	0.150674	3.15169
2.69744	-1.05107	4.61259
3.87429	-0.455368	3.83384
4.73401	0.696917	3.07936
1.61828	0.105728	4.81344
3.56251	-0.916754	6.24897
2.4904	0.507815	4.50007
3.36479	-1.06502	4.8237
2.12875	0.0416942	4.68477
2.86336	-1.26297	4.57869
2.64501	-0.996256	4.62405
4.84603	0.510567	3.22389
2.32558	1.09665	4.49149
5.17308	-1.57941	3.7863
3.42384	0.5593	3.71108
4.24474	-0.353645	3.72294
5.75663	-1.14629	2.78764
2.73205	-1.45699	4.6432
5.26822	0.400977	3.19588
4.06067	0.495832	3.48705
2.66627	0.407774	4.44878
2.0272	0.0471362	4.7153
5.51276	-1.02403	3.60184
4.26365	-0.154341	3.6534
2.87752	-1.16566	4.5502
3.20002	0.983933	2.8829
3.9867	0.604235	3.50619
3.21813	0.500249	3.78032
3.37967	0.924031	5.17064
2.06064	-0.160437	4.72323
4.16028	1.12881	2.78448
4.10542	-0.0819337	3.55883
3.7635	-0.886584	3.63721
2.7428	-0.136629	4.4934
3.55351	-1.2574	5.96682
2.28004	-0.484073	4.69183
5.98134	-0.702653	3.38317
6.4669	-1.47742	3.3067
3.76001	-1.16282	3.19309
3.26487	0.685173	2.7258
2.30281	0.235653	4.59519
3.98597	-0.117711	3.41268
2.829	-0.995229	4.55429
2.42151	-0.175442	4.60907
5.99375	0.454589	3.25897
4.38225	0.513427	3.38018
3.08442	-0.00807827	4.09278
3.67301	0.806204	3.20042
1.77984	-1.22923	5.21339
3.3853	0.84048	2.64214
2.64471	-1.211	4.64276
5.7111	-1.59969	3.59912
2.6393	-0.846379	2.92147
4.10147	0.536977	3.47344
2.47388	0.950897	4.45683
6.36624	-1.7605	3.38189
4.61602	0.691949	3.20778
2.38025	0.987974	4.47556
2.92205	0.200518	4.39608
4.26439	-0.168719	3.6537
4.44321	0.223478	4.31157
2.80098	0.771468	4.36927
2.87149	0.626964	4.34847
3.12414	-0.641602	4.40786
5.7101	2.42158	6.78654
1.99395	1.29771	4.48968
5.48529	-1.39557	3.04798
6.05598	0.30606	3.25807
2.74037	1.11911	4.36154
3.27822	-1.14344	4.38152
6.56296	-0.114694	7.22565
3.60347	-3.86334	16.0408
2.78191	-1.0737	4.58217
3.31759	1.03271	2.59898
5.13285	0.289225	2.59659
2.80954	1.09607	4.68904
2.63312	1.16015	4.37622
2.65193	0.21211	4.46162
2.61722	-1.29002	4.66225
4.14767	-1.3287	3.67894
3.2951	0.730957	7.51511
5.96444	-1.69292	4.00254
3.98672	0.248976	3.64016
3.80105	0.0929411	3.7992
6.2414	-0.707962	3.3068
3.70859	0.00529094	3.96526
5.97877	-1.58727	3.50066
5.08904	0.43794	2.60568
2.28307	1.15846	4.50125
4.07793	-0.0799064	3.657
1.87573	1.33919	4.52191
2.72253	-1.03963	4.59321
3.75501	0.867823	2.04772
2.30281	0.235653	4.59519
3.86134	0.0891136	3.78915
1.73363	0.612287	6.1411
4.10331	-0.0562521	3.64244
2.4065	-0.959094	2.78772
3.86861	-0.194781	3.812
4.50224	1.04153	1.60938
3.58469	0.614255	3.62197
1.93946	0.132116	3.07907
2.31891	0.502915	3.10641
3.27706	1.01737	2.66429
10.4782	1.00008	8.39592
2.8159	0.45603	2.67714
3.12338	1.13647	4.85882
2.88901	0.0488647	4.417
5.95147	0.573671	3.26857
4.76825	0.0646068	3.51951
3.94101	0.613693	3.5237
2.56889	1.11832	4.40539
3.81949	-1.3429	3.77662
2.96288	-1.2528	4.54312
3.42632	-1.23517	4.37301
1.88143	0.162189	3.52919
1.79851	0.0423127	5.9974
5.31526	0.70793	5.95491
1.72534	-0.884562	4.09764
2.53696	-1.03609	3.28534
2.96169	0.872846	3.82046
2.8181	1.06447	4.36862
4.42817	0.0733882	3.49328
3.50355	-1.10005	4.12409
2.3655	-0.655802	3.06375
4.26464	-1.39098	4.22178
2.75252	1.10699	4.35771
3.64081	-0.616997	4.04584
2.8017	-0.852412	4.54926
5.9127	-0.376508	3.37378
3.09503	0.303454	2.74582
2.2832	0.70332	4.55121
3.76538	0.505437	3.45019
2.64471	-1.211	4.64276
4.46705	0.0718955	3.57786
2.23996	0.464026	4.58859
2.67444	-1.03876	4.61944
3.09984	-1.15206	4.47501
2.72845	0.563605	4.41771
3.37349	-1.36019	4.40293
3.56324	0.254287	3.98723
4.74266	0.691169	3.16268
2.75331	0.620493	3.29653
2.07573	-0.388123	4.02998
3.50797	-0.0840687	4.04283
3.59279	0.924628	2.56189
3.97707	-0.57004	3.52289
4.91842	0.368552	2.49905
3.83315	0.608277	3.56468
3.28615	0.678232	2.66659
2.52226	-0.560759	2.86803
2.87344	0.457269	6.30977
3.8657	0.0916253	3.78473
2.33554	0.498103	4.56212
2.77483	-1.06541	4.58469
3.56365	-0.441575	4.03526
3.56727	0.872491	15.7691
2.49702	1.12189	4.44233
4.06645	-0.0653941	3.6881
3.04454	0.303614	5.89919
2.30528	0.800539	4.53413
2.79303	0.133599	4.43905
2.88548	1.15262	4.29395
12.294	-2.34856	8.85783
2.81239	-1.35413	4.60041
4.00546	-0.542471	3.79865
2.87413	0.841241	5.30688
6.06981	-0.895573	3.37742
4.24522	-0.764455	3.72762
4.08317	0.353857	2.90145
1.92928	-1.50857	5.80073
4.00096	-1.33815	3.74278
3.49	0.549242	3.69022
3.83632	0.602315	3.57104
5.17466	-0.168125	3.22797
