ply
format ascii 1.0
comment COMP5421
obj_info vtkPolyData points and polygons: vtk4.0
element vertex 281
property float x
property float y
property float z
element face 0
property list uchar int vertex_indices
end_header
0.814906	-0.135605	0.770244
2.0184	-1.03407	3.44632
0.979104	0.361885	1.15419
1.02608	0.10493	1.21971
1.73326	0.0227087	2.73121
3.76954	-1.50391	7.26253
1.05984	-0.38567	1.32394
0.830495	0.039268	0.786278
0.930306	0.231854	1.06133
2.25651	-1.12209	3.96772
2.84489	0.558047	5.07469
1.94015	-0.44716	3.22088
2.04077	-0.651606	3.45715
0.77257	-0.133839	0.684856
1.05006	0.283586	1.30832
1.37479	0.530214	1.8747
0.81687	0.117854	0.749827
0.830412	0.0221973	0.787676
0.874265	-0.150699	0.899241
2.18732	0.511416	3.66105
2.52889	0.904233	4.35879
0.85952	-0.134226	0.865502
5.94623	2.06002	11.6056
1.74243	-0.599512	2.81149
1.79956	-0.405998	2.91484
0.855404	-0.042679	0.847832
1.93528	0.675825	3.10436
0.833234	-0.150016	0.810364
2.12241	-0.807299	3.64888
1.04597	0.0778092	1.26651
0.831336	-0.0031103	0.792235
0.92398	0.16515	0.992554
0.89003	0.0524935	0.922168
0.831354	-0.226556	0.813831
3.08012	-1.65319	5.79006
2.34982	-0.168058	4.07623
1.79126	-0.972826	2.95219
1.02809	0.09181	1.22384
6.1076	0.430428	12.1114
5.76789	-1.50192	11.5609
1.00514	0.0864712	1.17849
0.976748	0.269578	1.15465
0.924272	0.223569	0.976953
0.829738	-0.0936446	0.797721
1.04547	0.385961	1.29067
0.780898	-0.126251	0.700288
6.88447	3.53844	13.488
0.80926	0.0829499	0.738109
1.1931	-0.19016	1.60784
0.877624	-0.172322	0.908282
0.781498	-0.128264	0.701935
0.914505	0.312549	1.0189
0.831577	-0.0169775	0.793946
0.933745	0.298916	1.061
1.64874	-0.602516	2.60988
0.971678	-0.0853522	1.11691
1.14351	-0.473786	1.51015
0.874901	-0.187753	0.845542
7.22453	-2.72212	14.811
0.834187	-0.0169692	0.799455
4.53642	-1.87463	8.94602
2.77718	0.523228	4.93175
1.78485	-0.0777243	2.85275
1.03603	0.0528147	1.23913
1.46495	-0.486844	2.203
0.886778	-0.145988	0.851457
0.860101	0.245913	0.89136
2.14426	-0.259314	3.64337
0.971773	-0.0239183	1.11304
1.04607	-0.0851788	1.26473
1.90552	-0.102989	3.11267
2.56058	0.932505	4.42618
0.850576	0.0179588	0.831467
0.831006	0.0580387	0.785748
2.50979	-0.696323	4.47125
4.5271	-2.7465	9.01175
1.84298	-0.0841892	2.9788
0.913728	0.30447	0.9599
1.81365	-0.702375	2.65496
1.12174	0.243708	1.42212
3.88044	0.467006	7.31357
0.885928	-0.263957	0.934813
2.45788	0.832111	4.2152
0.860142	0.125871	0.84193
1.0179	-0.0217691	1.24868
1.03012	-0.247612	1.26763
0.883975	-0.158173	0.92042
0.951583	0.297716	1.09893
0.796372	0.156815	0.70739
1.31662	-0.508336	1.88589
1.02334	-0.195901	1.21332
2.66655	-0.760028	4.81528
0.855778	0.261582	0.881061
1.05366	0.149676	1.27441
0.981031	0.296325	1.16152
2.97425	0.902394	4.64182
1.04257	0.108022	1.25477
1.1557	-0.399474	1.52912
4.77494	-2.76343	8.42098
1.09236	0.200057	1.36105
1.45404	-0.0438386	2.17251
5.79138	2.33621	9.85505
0.757142	-0.17601	0.777657
1.19858	0.12604	1.58206
3.39015	-1.04189	6.39919
0.983203	-0.0876556	1.12573
1.84264	-1.01517	3.06524
1.04083	-0.210585	1.2827
1.16006	0.280632	1.52988
1.39784	-0.372889	2.04801
2.38016	-0.801806	4.20009
4.92785	0.950017	9.51468
2.22051	0.755496	3.70952
1.51977	-0.134238	2.28734
0.83467	-0.116345	0.81034
2.04772	0.827412	3.33107
0.856427	-0.192612	0.864619
0.868624	0.070586	0.865298
0.83125	0.106924	0.781317
1.23132	0.0935717	1.65647
2.10795	0.595309	3.48469
2.9389	1.31242	5.20346
1.01099	0.0854773	1.18996
1.03555	0.0137317	1.24259
1.24899	0.440797	1.50342
3.08012	-1.65319	5.79006
1.43087	-0.565945	2.13797
1.03898	0.310138	0.999986
0.813558	-0.194047	0.773371
0.814577	0.0683928	0.74984
1.92034	0.65455	3.07378
0.89582	-0.060298	0.936625
1.03128	0.0551446	1.22925
1.01864	-0.0829771	1.21689
2.15054	0.882444	3.5472
1.22896	0.0549374	1.6556
1.12174	0.243708	1.42212
1.00663	0.221207	1.17343
1.90814	0.00430147	3.01304
0.978945	-0.320184	1.14054
1.21955	0.450456	1.62142
1.11189	-0.426048	1.4372
1.02317	0.0589959	1.21209
3.14852	-1.68779	5.94187
1.62683	-0.812729	2.58212
3.78443	0.65292	7.08962
2.19598	-0.153016	3.74149
0.834798	-0.0684581	0.806015
1.23812	0.0675443	1.67414
0.935383	0.142588	1.01648
1.0572	-0.249056	1.15633
1.05916	0.114768	1.14297
0.804199	0.196539	0.72738
0.888285	-0.0944195	0.991075
1.05001	-0.396389	1.30513
0.897116	-0.0178826	0.935521
6.14265	0.478114	12.1844
1.01399	0.382669	1.22671
2.04376	-0.74597	3.47725
2.12026	-0.0671886	3.57428
1.89153	0.461545	3.03125
0.972132	-0.0388798	1.31987
0.991275	-0.0422231	1.15231
1.02851	0.0302664	1.22826
2.21241	-0.0492897	3.76002
1.84629	0.352605	2.94418
0.831334	-0.111985	0.802952
1.87908	-0.628827	3.08708
1.08608	0.278317	1.26489
0.832224	-0.09979	0.803524
3.01261	1.11593	5.38154
3.3048	-1.70897	6.27907
1.11457	-0.373855	1.22756
0.82768	0.0815149	0.777623
1.07412	-0.101492	1.20412
3.59786	0.289561	6.72018
1.67734	-0.164698	2.62964
0.854693	-0.0851949	0.850624
1.22593	0.0158981	1.67394
1.02736	0.058191	1.22066
0.813867	0.0514423	0.877207
2.81393	-1.21989	5.17736
1.01913	0.094418	1.2062
1.01687	0.036489	1.20401
6.21915	-2.26508	12.6038
1.40187	0.157176	2.02831
2.18578	-0.996144	3.49023
4.10312	1.98845	7.64343
2.58206	0.92931	4.47325
1.02418	-0.247907	1.2556
1.0366	-0.331542	1.19305
9.6643	-5.64213	15.8022
1.0491	0.167267	1.00522
2.2976	0.537252	3.26756
1.22482	-0.474975	1.45217
0.875943	-0.0793501	0.89617
1.46347	-0.543696	2.20581
4.29838	-1.85095	7.89733
1.92931	-1.092	3.17603
0.970205	0.117407	1.09123
2.40463	-0.00695172	4.17959
1.01111	0.0358168	1.19207
1.92034	0.65455	3.07378
0.855991	-0.0833784	0.853257
1.27916	-0.581918	1.87294
1.07702	0.0574876	1.33094
1.02623	-0.18977	1.26675
0.992053	-0.0483783	1.15503
0.974621	-0.312192	1.13093
0.932093	0.192226	1.01096
1.20696	0.0119838	1.61116
0.930462	-0.0687247	1.02142
0.895124	0.151503	0.929945
0.814645	-0.136451	0.769875
0.861471	0.014502	0.855482
3.36356	1.76752	6.10037
0.978881	-0.31356	1.13948
0.852906	0.299143	0.878713
0.992759	0.273479	1.26268
0.986105	0.355144	1.17528
8.5977	-0.290051	17.5399
1.09329	-0.416535	1.39707
1.12175	-0.356441	1.47028
0.967969	0.253071	0.9548
0.907588	-0.201923	0.986541
1.05765	0.124298	1.42899
0.98143	-0.0366293	1.1316
2.81386	-1.18473	5.1737
2.41018	-0.65824	4.25356
1.03368	-0.0963098	1.27299
1.00588	-0.359551	1.20252
1.05898	0.122662	1.28603
1.9375	0.549947	3.14484
0.88987	0.0674378	0.919129
0.999345	0.316139	1.19819
0.979638	0.0713914	1.09448
0.854054	0.100032	0.831127
1.27034	0.233719	1.38893
1.19522	0.381126	1.50042
1.25049	0.428615	1.69008
0.866311	-0.100413	0.87693
0.939196	0.0261362	1.02777
1.01882	0.225884	1.2006
1.80465	0.0262946	2.88531
1.0434	0.188188	1.25411
4.33729	0.299434	7.02784
2.62243	-0.724275	4.71635
1.42212	0.42633	2.06969
1.93785	0.37598	3.13854
1.07036	-0.227462	1.11518
1.16526	0.424744	1.51282
3.84559	-1.34732	6.73537
1.01464	0.112228	1.27117
1.01308	0.0124472	1.19594
1.02058	-0.0175683	1.26017
1.03404	0.0395954	1.22122
0.840308	0.209471	0.847292
0.831599	0.0275383	0.789799
0.964422	-0.272238	1.24968
1.39329	0.34462	1.71763
1.08757	0.00394866	1.20259
1.72072	0.44797	2.23471
1.04235	-0.0909707	1.21426
1.06225	-0.375274	1.22914
4.27676	0.726097	7.99064
0.957601	0.0415415	1.23868
1.04524	-0.169205	1.3171
0.970765	0.0368119	1.19384
0.919093	0.0767874	0.979058
0.998349	0.0755659	1.16456
1.1289	0.0257429	1.27755
1.51665	0.311231	2.27701
0.857479	-0.0215678	0.850773
1.02809	0.09181	1.22384
1.44441	0.295264	2.12987
1.00245	-0.00663663	1.11379
1.01873	0.0975174	1.20538
0.996228	-0.340285	1.17997
1.0261	-0.1602	1.24861
0.995495	-0.0547185	1.1626
1.08757	0.00394866	1.20259
